# .PCD v.7 - Point Cloud Data file format
VERSION .7
FIELDS x y z rgb
SIZE 4 4 4 4
TYPE F F F F
COUNT 1 1 1 1
WIDTH 30
HEIGHT 20
VIEWPOINT 0 0 0 1 0 0 0
POINTS 600
DATA ascii
-0.53788197 0.3165029 0.90800005 1.4094306e-38
-0.53615242 0.3165029 0.90800005 1.46468e-38
-0.53265715 0.31545714 0.90500003 1.5291473e-38
-0.52976006 0.31476 0.90300006 1.5475177e-38
-0.52687049 0.31406286 0.90100002 1.5567355e-38
-0.52340573 0.31301716 0.89800006 1.5478017e-38
-0.5234381 0.31406286 0.90100002 1.5296134e-38
-0.5217219 0.31406286 0.90100002 1.5014166e-38
-0.52000576 0.31406286 0.90100002 1.4833734e-38
-0.51944005 0.31476 0.90300006 1.5015622e-38
-0.51771998 0.31476 0.90300006 1.5197097e-38
-0.52171433 0.31824574 0.91300005 1.4183994e-38
-0.51997524 0.31824574 0.91300005 1.3263154e-38
-0.51653332 0.31720001 0.91000003 1.3912128e-38
-0.51480001 0.31720001 0.91000003 1.4556411e-38
-0.51306671 0.31720001 0.91000003 1.4555695e-38
-0.51133335 0.31720001 0.91000003 1.4554623e-38
-0.50959998 0.31720001 0.91000003 1.4462433e-38
-0.51065713 0.31894287 0.91500002 1.446245e-38
-0.50613332 0.31720001 0.91000003 1.4739051e-38
-0.50828004 0.31964001 0.91700006 1.5015615e-38
-0.50653338 0.31964001 0.91700006 1.4831569e-38
-0.50368571 0.31894287 0.91500002 1.4739372e-38
-0.50304002 0.31964001 0.91700006 1.4556415e-38
-0.49746668 0.31720001 0.91000003 1.4374904e-38
-0.49573335 0.31720001 0.91000003 1.4557507e-38
-0.49400002 0.31720001 0.91000003 1.4740121e-38
-0.49388957 0.31824574 0.91300005 1.4741934e-38
-0.49215052 0.31824574 0.91300005 1.4837685e-38
-0.48879999 0.31720001 0.91000003 1.4742232e-38
-0.48706669 0.31720001 0.91000003 1.4740792e-38
-0.4842667 0.3165029 0.90800005 1.4647878e-38
-0.48360002 0.31720001 0.91000003 1.4554952e-38
-0.48080763 0.3165029 0.90800005 1.5017346e-38
-0.48013335 0.31720001 0.91000003 1.5571229e-38
-0.4773486 0.3165029 0.90800005 1.5018782e-38
-0.47561908 0.3165029 0.90800005 1.4466708e-38
-0.47388953 0.3165029 0.90800005 1.4922674e-38
-0.47216004 0.3165029 0.90800005 1.5291442e-38
-0.47043049 0.3165029 0.90800005 1.5201392e-38
-0.46870098 0.3165029 0.90800005 1.5203193e-38
-0.46542859 0.31545714 0.90500003 1.5754213e-38
-0.46370476 0.31545714 0.90500003 1.6397074e-38
-0.46096003 0.31476 0.90300006 1.6307403e-38
-0.45924002 0.31476 0.90300006 1.6123364e-38
-0.45752001 0.31476 0.90300006 1.5754579e-38
-0.45580003 0.31476 0.90300006 1.547801e-38
-0.45408002 0.31476 0.90300006 1.5106737e-38
-0.45336193 0.31545714 0.90500003 1.4737191e-38
-0.4516381 0.31545714 0.90500003 1.4371592e-38
-0.44991428 0.31545714 0.90500003 1.4098282e-38
-0.44819048 0.31545714 0.90500003 1.4647546e-38
-0.4479467 0.3165029 0.90800005 1.5196765e-38
-0.44621715 0.3165029 0.90800005 1.5382949e-38
-0.44448766 0.3165029 0.90800005 1.5476959e-38
-0.44129524 0.31545714 0.90500003 1.4833774e-38
-0.44102859 0.3165029 0.90800005 1.4098692e-38
-0.53961146 0.3165029 0.90800005 1.4094261e-38
-0.53788197 0.3165029 0.90800005 1.4094306e-38
-0.53615242 0.3165029 0.90800005 1.46468e-38
-0.53265715 0.31545714 0.90500003 1.5291473e-38
-0.52976006 0.31476 0.90300006 1.5475177e-38
-0.52687049 0.31406286 0.90100002 1.5567355e-38
-0.52340573 0.31301716 0.89800006 1.5478017e-38
-0.5234381 0.31406286 0.90100002 1.5296134e-38
-0.5217219 0.31406286 0.90100002 1.5014166e-38
-0.52000576 0.31406286 0.90100002 1.4833734e-38
-0.51944005 0.31476 0.90300006 1.5015622e-38
-0.51771998 0.31476 0.90300006 1.5197097e-38
-0.52171433 0.31824574 0.91300005 1.4183994e-38
-0.51997524 0.31824574 0.91300005 1.3263154e-38
-0.51653332 0.31720001 0.91000003 1.3912128e-38
-0.51480001 0.31720001 0.91000003 1.4556411e-38
-0.43929908 0.3165029 0.90800005 1.4092913e-38
-0.43756956 0.3165029 0.90800005 1.4090038e-38
-0.43584001 0.3165029 0.90800005 1.4277651e-38
-0.43267623 0.31545714 0.90500003 1.4552443e-38
-0.4309524 0.31545714 0.90500003 1.4924452e-38
-0.42922857 0.31545714 0.90500003 1.5383993e-38
-0.42750475 0.31545714 0.90500003 1.5199969e-38
-0.42578095 0.31545714 0.90500003 1.5107795e-38
-0.42312002 0.31476 0.90300006 1.4741551e-38
-0.42233333 0.31545714 0.90500003 1.4375282e-38
-0.42060953 0.31545714 0.90500003 1.4465322e-38
-0.41888574 0.31545714 0.90500003 1.4555708e-38
-0.41716191 0.31545714 0.90500003 1.4647888e-38
-0.41452003 0.31476 0.90300006 1.4832635e-38
-0.41280001 0.31476 0.90300006 1.4924831e-38
-0.41108003 0.31476 0.90300006 1.5108499e-38
-0.40936002 0.31476 0.90300006 1.418512e-38
-0.40764004 0.31476 0.90300006 1.3253858e-38
-0.40681905 0.31545714 0.90500003 1.5019904e-38
-0.40509525 0.31545714 0.90500003 1.6862344e-38
-0.40248004 0.31476 0.90300006 1.6676513e-38
-0.40297908 0.3165029 0.90800005 1.6584681e-38
-0.40124953 0.3165029 0.90800005 1.6216627e-38
-0.39952004 0.3165029 0.90800005 1.5837465e-38
-0.39779049 0.3165029 0.90800005 1.565776e-38
-0.39693332 0.31720001 0.91000003 1.5478028e-38
-0.39520001 0.31720001 0.91000003 1.6028317e-38
-0.39346668 0.31720001 0.91000003 1.657897e-38
-0.39087239 0.3165029 0.90800005 1.649108e-38
-0.3891429 0.3165029 0.90800005 1.6400325e-38
-0.38613334 0.31545714 0.90500003 1.6029041e-38
-0.38440952 0.31545714 0.90500003 1.57528e-38
-0.38268572 0.31545714 0.90500003 1.5477636e-38
-0.38096192 0.31545714 0.90500003 1.5294265e-38
-0.3792381 0.31545714 0.90500003 1.5200937e-38
-0.37876573 0.3165029 0.90800005 1.5194181e-38
-0.37703621 0.3165029 0.90800005 1.5108146e-38
-0.3753067 0.3165029 0.90800005 1.5017777e-38
-0.37440002 0.31720001 0.91000003 1.4557557e-38
-0.37184766 0.3165029 0.90800005 1.4005729e-38
-0.37011811 0.3165029 0.90800005 1.4554493e-38
-0.36636001 0.31476 0.90300006 1.5103455e-38
-0.36544761 0.31545714 0.90500003 1.5381934e-38
-0.36292002 0.31476 0.90300006 1.5660643e-38
-0.3612 0.31476 0.90300006 1.6309922e-38
-0.35947999 0.31476 0.90300006 1.6953479e-38
-0.36251429 0.31894287 0.91500002 1.6861278e-38
-0.35801145 0.3165029 0.90800005 1.6769438e-38
-0.35824382 0.31824574 0.91300005 1.6489983e-38
-0.35650477 0.31824574 0.91300005 1.6208742e-38
-0.35476574 0.31824574 0.91300005 1.6670436e-38
-0.35186669 0.31720001 0.91000003 1.7132145e-38
-0.35013333 0.31720001 0.91000003 1.6398199e-38
-0.3484 0.31720001 0.91000003 1.575892e-38
-0.34666666 0.31720001 0.91000003 1.5754238e-38
-0.34493336 0.31720001 0.91000003 1.5846784e-38
-0.34244573 0.3165029 0.90800005 1.5659879e-38
-0.34071621 0.3165029 0.90800005 1.5469025e-38
-0.33898669 0.3165029 0.90800005 1.5011633e-38
-0.33725718 0.3165029 0.90800005 1.4554259e-38
-0.33552763 0.3165029 0.90800005 1.4839102e-38
-0.33269525 0.31545714 0.90500003 1.520321e-38
-0.33097145 0.31545714 0.90500003 1.5663459e-38
-0.32924762 0.31545714 0.90500003 1.6124083e-38
-0.32752383 0.31545714 0.90500003 1.5481604e-38
-0.32580003 0.31545714 0.90500003 1.4925854e-38
-0.32407618 0.31545714 0.90500003 1.4644893e-38
-0.32342097 0.3165029 0.90800005 1.437018e-38
-0.32169145 0.3165029 0.90800005 1.5568423e-38
-0.31996194 0.3165029 0.90800005 1.6866299e-38
-0.31718096 0.31545714 0.90500003 1.6122987e-38
-0.31545714 0.31545714 0.90500003 1.547155e-38
-0.31373334 0.31545714 0.90500003 1.5385835e-38
-0.31304383 0.3165029 0.90800005 1.5295052e-38
-0.31131428 0.3165029 0.90800005 1.4740071e-38
-0.3095848 0.3165029 0.90800005 1.4185123e-38
-0.30853334 0.31720001 0.91000003 1.5293976e-38
-0.30680001 0.31720001 0.91000003 1.6486041e-38
-0.30506667 0.31720001 0.91000003 1.6120491e-38
-0.30433336 0.31824574 0.91300005 1.5848578e-38
-0.3025943 0.31824574 0.91300005 1.6216644e-38
-0.29986668 0.31720001 0.91000003 1.6585081e-38
-0.29813334 0.31720001 0.91000003 1.6403223e-38
-0.29640001 0.31720001 0.91000003 1.6221312e-38
-0.29401907 0.3165029 0.90800005 1.5847479e-38
-0.29293334 0.31720001 0.91000003 1.5381858e-38
-0.29056001 0.3165029 0.90800005 1.5572359e-38
-0.28883049 0.3165029 0.90800005 1.567103e-38
-0.28710097 0.3165029 0.90800005 1.5672128e-38
-0.28537145 0.3165029 0.90800005 1.5765028e-38
-0.2836419 0.3165029 0.90800005 1.5941155e-38
-0.28191242 0.3165029 0.90800005 1.6216302e-38
-0.27925715 0.31545714 0.90500003 1.6396386e-38
-0.27753332 0.31545714 0.90500003 1.6484614e-38
-0.27672383 0.3165029 0.90800005 1.6121558e-38
-0.27560002 0.31720001 0.91000003 1.5754555e-38
-0.27326477 0.3165029 0.90800005 1.5568353e-38
-0.27063811 0.31545714 0.90500003 1.5472614e-38
-0.26891431 0.31545714 0.90500003 1.4918773e-38
-0.26807621 0.3165029 0.90800005 1.4273356e-38
-0.26634666 0.3165029 0.90800005 1.4825748e-38
-0.26461717 0.3165029 0.90800005 1.5378245e-38
-0.26201904 0.31545714 0.90500003 1.4826922e-38
-0.26029524 0.31545714 0.90500003 1.4275498e-38
-0.25942859 0.3165029 0.90800005 1.5385365e-38
-0.25769907 0.3165029 0.90800005 1.649534e-38
-0.25596952 0.3165029 0.90800005 1.6031915e-38
-0.25479999 0.31720001 0.91000003 1.5568412e-38
-0.25306666 0.31720001 0.91000003 1.5570545e-38
-0.25133333 0.31720001 0.91000003 1.5572697e-38
-0.24960001 0.31720001 0.91000003 1.612371e-38
-0.24732192 0.3165029 0.90800005 1.6675076e-38
-0.24559239 0.3165029 0.90800005 1.6491041e-38
-0.24386285 0.3165029 0.90800005 1.639528e-38
-0.24213335 0.3165029 0.90800005 1.6671884e-38
-0.24040382 0.3165029 0.90800005 1.6948468e-38
-0.2386743 0.3165029 0.90800005 1.6581845e-38
-0.2361619 0.31545714 0.90500003 1.6209472e-38
-0.23521525 0.3165029 0.90800005 1.574957e-38
-0.23400001 0.31720001 0.91000003 1.5381501e-38
-0.23226666 0.31720001 0.91000003 1.5757802e-38
-0.23002668 0.3165029 0.90800005 1.6217002e-38
-0.2288 0.31720001 0.91000003 1.566099e-38
-0.22706668 0.31720001 0.91000003 1.5196406e-38
-0.22533333 0.31720001 0.91000003 1.5471529e-38
-0.22360002 0.31720001 0.91000003 1.5655206e-38
-0.22186667 0.31720001 0.91000003 1.5940764e-38
-0.21964954 0.3165029 0.90800005 1.6213767e-38
-0.21792001 0.3165029 0.90800005 1.5842846e-38
-0.21666667 0.31720001 0.91000003 1.5469033e-38
-0.21493334 0.31720001 0.91000003 1.5195306e-38
-0.2132 0.31720001 0.91000003 1.4921617e-38
-0.21146667 0.31720001 0.91000003 1.5107107e-38
-0.20973334 0.31720001 0.91000003 1.5292561e-38
-0.20868573 0.31824574 0.91300005 1.5015251e-38
-0.20626667 0.31720001 0.91000003 1.4738316e-38
-0.20453334 0.31720001 0.91000003 1.5291489e-38
-0.2023543 0.3165029 0.90800005 1.5850374e-38
-0.19996192 0.31545714 0.90500003 1.5569469e-38
-0.19780001 0.31476 0.90300006 1.5288587e-38
-0.19608001 0.31476 0.90300006 1.4736146e-38
-0.19436002 0.31476 0.90300006 1.4275892e-38
-0.19264002 0.31476 0.90300006 1.5019187e-38
-0.19134286 0.31545714 0.90500003 1.5756022e-38
-0.19024763 0.3165029 0.90800005 1.5020262e-38
-0.18851811 0.3165029 0.90800005 1.4284844e-38
-0.18617144 0.31545714 0.90500003 1.363337e-38
-0.18444763 0.31545714 0.90500003 1.2990512e-38
-0.18232 0.31476 0.90300006 1.2991578e-38
-0.1806 0.31476 0.90300006 1.3084504e-38
-0.17788953 0.31301716 0.89800006 1.0776792e-38
-0.17578667 0.31231999 0.89600003 8.4679345e-39
-0.17369144 0.31162286 0.89400005 8.4639338e-39
-0.17141144 0.31057715 0.89100003 8.5522156e-39
-0.16933335 0.30988002 0.88900006 8.2760253e-39
-0.16764002 0.30988002 0.88900006 8.0919914e-39
-0.16594668 0.30988002 0.88900006 8.0001531e-39
-0.16388381 0.30918285 0.88700002 8.0005062e-39
-0.16219428 0.30918285 0.88700002 7.8157548e-39
-0.16050476 0.30918285 0.88700002 7.7207089e-39
-0.15881525 0.30918285 0.88700002 7.8139976e-39
-0.15712573 0.30918285 0.88700002 7.9069135e-39
-0.15578666 0.30988002 0.88900006 8.2739009e-39
-0.15374666 0.30918285 0.88700002 8.6412345e-39
-0.1524 0.30988002 0.88900006 8.3646448e-39
-0.15070666 0.30988002 0.88900006 8.0884237e-39
-0.14901334 0.30988002 0.88900006 7.9047555e-39
-0.14732 0.30988002 0.88900006 7.720367e-39
-0.14562666 0.30988002 0.88900006 7.7214446e-39
-0.14393334 0.30988002 0.88900006 7.7228879e-39
-0.14224 0.30988002 0.88900006 7.6292686e-39
-0.14086287 0.31057715 0.89100003 7.5374163e-39
-0.13916571 0.31057715 0.89100003 7.6295937e-39
-0.13746858 0.31057715 0.89100003 7.6299538e-39
-0.13577142 0.31057715 0.89100003 7.5381197e-39
-0.13407429 0.31057715 0.89100003 7.4462758e-39
-0.13282286 0.31162286 0.89400005 7.4448339e-39
-0.13068001 0.31057715 0.89100003 7.3529984e-39
-0.12898286 0.31057715 0.89100003 7.1689687e-39
-0.12728572 0.31057715 0.89100003 7.0789072e-39
-0.12601143 0.31162286 0.89400005 6.6186339e-39
-0.12389143 0.31057715 0.89100003 6.2502073e-39
-0.12192 0.30988002 0.88900006 5.7888691e-39
-0.11955048 0.30813718 0.88400006 5.3293356e-39
-0.11666667 0.30500004 0.87500006 5.2367855e-39
-0.11500001 0.30500004 0.87500006 5.1442339e-39
-0.11307429 0.30430287 0.87300003 4.960207e-39
-0.11090095 0.30290857 0.86900002 4.8680058e-39
-0.10924571 0.30290857 0.86900002 4.6843292e-39
-0.10734286 0.30221143 0.86700004 4.5928524e-39
-0.10544763 0.3015143 0.86500007 4.2255104e-39
-0.10380001 0.3015143 0.86500007 3.9492865e-39
-0.1017981 0.30046856 0.86200005 3.9492865e-39
-0.1001562 0.30046856 0.86200005 3.9492865e-39
-0.09828572 0.29977143 0.86000001 3.7656155e-39
-0.09664762 0.29977143 0.86000001 3.5819501e-39
-0.094788581 0.29907429 0.85800004 3.4901202e-39
-0.092937149 0.29837716 0.85600007 3.3982791e-39
-0.091306672 0.29837716 0.85600007 3.122767e-39
-0.089676194 0.29837716 0.85600007 2.939096e-39
-0.088045716 0.29837716 0.85600007 2.4799185e-39
-0.086415246 0.29837716 0.85600007 2.0210998e-39
-0.084586665 0.29768002 0.85400003 1.2860571e-39
-0.082960002 0.29768002 0.85400003 6.4356734e-40
-0.081333332 0.29768002 0.85400003 7.350441e-40
-0.079706669 0.29768002 0.85400003 9.187151e-40
-0.078079998 0.29768002 0.85400003 6.4320861e-40
-0.076453336 0.29768002 0.85400003 3.6770212e-40
-0.074826665 0.29768002 0.85400003 2.7586802e-40
-0.073371433 0.29837716 0.85600007 2.7586662e-40
-0.071740955 0.29837716 0.85600007 2.7586662e-40
-0.070274286 0.29907429 0.85800004 3.6770212e-40
-0.068480007 0.29837716 0.85600007 3.6770352e-40
-0.06684953 0.29837716 0.85600007 3.6806085e-40
-0.065523811 0.29977143 0.86000001 3.6770212e-40
-0.063885719 0.29977143 0.86000001 3.6806085e-40
-0.062102858 0.29907429 0.85800004 3.6770212e-40
-0.060750477 0.30046856 0.86200005 4.5953761e-40
-0.059108574 0.30046856 0.86200005 3.6770212e-40
-0.057466671 0.30046856 0.86200005 3.6770212e-40
-0.055824768 0.30046856 0.86200005 3.6770212e-40
-0.054371431 0.3015143 0.86500007 4.5953761e-40
-0.052723814 0.3015143 0.86500007 3.6770212e-40
-0.051076196 0.3015143 0.86500007 3.6770212e-40
-0.049542859 0.30221143 0.86700004 2.7586662e-40
-0.047891431 0.30221143 0.86700004 1.8403113e-40
-0.046346668 0.30290857 0.86900002 2.7586662e-40
-0.044691432 0.30290857 0.86900002 3.6770212e-40
-0.043135241 0.30360574 0.87100005 2.7586802e-40
-0.041476194 0.30360574 0.87100005 2.7622535e-40
-0.039817143 0.30360574 0.87100005 1.8438986e-40
-0.038158096 0.30360574 0.87100005 1.8438986e-40
-0.036582857 0.30430287 0.87300003 2.7586662e-40
-0.035119999 0.30604574 0.87800002 3.6770212e-40
-0.033523809 0.30674288 0.88000005 5.5137311e-40
-0.031992383 0.30813718 0.88400006 8.268796e-40
-0.030308573 0.30813718 0.88400006 5.5137311e-40
-0.028721906 0.30918285 0.88700002 3.6806085e-40
-0.027093334 0.30988002 0.88900006 3.6770212e-40
-0.025457144 0.31057715 0.89100003 3.6770212e-40
-0.023760002 0.31057715 0.89100003 2.7586662e-40
-0.022310477 0.31406286 0.90100002 1.8438986e-40
-0.020640001 0.31476 0.90300006 4.5989635e-40
-0.018920001 0.31476 0.90300006 6.442848e-40
-0.017161906 0.31406286 0.90100002 1.0112695e-39
-0.015480001 0.31476 0.90300006 1.3782513e-39
-0.01376 0.31476 0.90300006 1.6541165e-39
-0.012040001 0.31476 0.90300006 1.9296342e-39
-0.010297143 0.31406286 0.90100002 2.2051533e-39
-0.0086000003 0.31476 0.90300006 2.4810073e-39
-0.0068800002 0.31476 0.90300006 2.2973251e-39
-0.0051485715 0.31406286 0.90100002 2.1136541e-39
-0.003432381 0.31406286 0.90100002 2.6643084e-39
-0.0017104762 0.31301716 0.89800006 3.3071569e-39
0 0.31301716 0.89800006 3.2163976e-39
0.0017104762 0.31301716 0.89800006 3.1256369e-39
0.0034209525 0.31301716 0.89800006 3.3082317e-39
0.0051314291 0.31301716 0.89800006 3.4915495e-39
0.0068419049 0.31301716 0.89800006 3.1249306e-39
0.0085523818 0.31301716 0.89800006 2.7586592e-39
0.010240001 0.31231999 0.89600003 3.1256383e-39
0.011946667 0.31231999 0.89600003 3.4007846e-39
0.013653333 0.31231999 0.89600003 3.6759324e-39
0.015360001 0.31231999 0.89600003 4.0429156e-39
0.017066667 0.31231999 0.89600003 3.6755736e-39
0.018773332 0.31231999 0.89600003 3.3997084e-39
0.020480001 0.31231999 0.89600003 2.8486954e-39
0.022186669 0.31231999 0.89600003 2.2980454e-39
0.023893334 0.31231999 0.89600003 2.6650329e-39
0.025600001 0.31231999 0.89600003 3.123874e-39
0.027306667 0.31231999 0.89600003 3.1246153e-39
0.029013334 0.31231999 0.89600003 3.0331161e-39
0.030720001 0.31231999 0.89600003 2.9409009e-39
0.032354284 0.31162286 0.89400005 2.9405365e-39
0.034133334 0.31231999 0.89600003 3.21532e-39
0.035640001 0.31057715 0.89100003 3.5826648e-39
0.03746286 0.31162286 0.89400005 3.4915495e-39
0.039165713 0.31162286 0.89400005 3.4011462e-39
0.040868573 0.31162286 0.89400005 3.4929788e-39
0.042571433 0.31162286 0.89400005 3.5851871e-39
0.044274289 0.31162286 0.89400005 3.5841249e-39
0.045977142 0.31162286 0.89400005 3.5833934e-39
0.047786668 0.31231999 0.89600003 3.5830207e-39
0.049493335 0.31231999 0.89600003 3.5830221e-39
0.051200002 0.31231999 0.89600003 3.2160416e-39
0.05290667 0.31231999 0.89600003 2.7572299e-39
0.054613333 0.31231999 0.89600003 3.2153396e-39
0.056194291 0.31162286 0.89400005 3.766347e-39
0.057897147 0.31162286 0.89400005 3.4908363e-39
0.059400003 0.31057715 0.89100003 3.2156885e-39
0.061302859 0.31162286 0.89400005 3.2156885e-39
0.063005716 0.31162286 0.89400005 3.3078827e-39
0.064708568 0.31162286 0.89400005 3.3993609e-39
0.066411428 0.31162286 0.89400005 3.4911922e-39
0.068114288 0.31162286 0.89400005 3.5833836e-39
0.069817148 0.31162286 0.89400005 3.7674105e-39
0.071520008 0.31162286 0.89400005 3.4919026e-39
0.073222861 0.31162286 0.89400005 3.3096694e-39
0.074925721 0.31162286 0.89400005 3.4007902e-39
0.076628581 0.31162286 0.89400005 3.5830249e-39
0.078068569 0.31057715 0.89100003 3.5841011e-39
0.079765722 0.31057715 0.89100003 3.6766667e-39
0.08146286 0.31057715 0.89100003 3.7677987e-39
0.083159998 0.31057715 0.89100003 3.8589069e-39
0.085142866 0.31162286 0.89400005 3.7670616e-39
0.086554289 0.31057715 0.89100003 3.5826802e-39
0.088251427 0.31057715 0.89100003 3.6745241e-39
0.08994858 0.31057715 0.89100003 3.6745129e-39
0.091645718 0.31057715 0.89100003 3.6748618e-39
0.093657143 0.31162286 0.89400005 3.6762981e-39
0.095040008 0.31057715 0.89100003 3.768135e-39
0.096737146 0.31057715 0.89100003 3.8599691e-39
0.098434284 0.31057715 0.89100003 3.7677735e-39
0.099906676 0.30988002 0.88900006 3.6759506e-39
0.10182858 0.31057715 0.89100003 3.6763219e-39
0.10329334 0.30988002 0.88900006 3.6784659e-39
0.10498668 0.30988002 0.88900006 4.042931e-39
0.10668001 0.30988002 0.88900006 4.5024729e-39
0.10837334 0.30988002 0.88900006 4.1347777e-39
0.11006667 0.30988002 0.88900006 3.8592685e-39
0.11176001 0.30988002 0.88900006 3.9514613e-39
0.11345334 0.30988002 0.88900006 4.0436695e-39
0.11540572 0.31057715 0.89100003 3.6767017e-39
0.11710286 0.31057715 0.89100003 3.2182207e-39
0.11880001 0.31057715 0.89100003 3.5855416e-39
0.12049714 0.31057715 0.89100003 3.8610425e-39
0.12219428 0.31057715 0.89100003 3.8599621e-39
0.12389143 0.31057715 0.89100003 3.9514389e-39
0.12601143 0.31162286 0.89400005 4.0429156e-39
0.12800001 0.31231999 0.89600003 4.2269482e-39
0.12970667 0.31231999 0.89600003 3.7688511e-39
0.13141334 0.31231999 0.89600003 3.3111183e-39
0.13312 0.31231999 0.89600003 3.6766765e-39
0.13512762 0.31301716 0.89800006 4.0422122e-39
0.13683811 0.31301716 0.89800006 4.4167162e-39
0.13854858 0.31301716 0.89800006 4.7894462e-39
0.14025904 0.31301716 0.89800006 5.0649597e-39
0.14196953 0.31301716 0.89800006 5.4323171e-39
0.14416 0.31406286 0.90100002 6.1706052e-39
0.1462 0.31476 0.90300006 6.9996232e-39
0.14792001 0.31476 0.90300006 7.4609418e-39
0.14964001 0.31476 0.90300006 8.0137625e-39
0.15102476 0.31406286 0.90100002 7.8275958e-39
0.15223239 0.31301716 0.89800006 7.7364735e-39
0.15445715 0.31406286 0.90100002 8.0137709e-39
0.15617335 0.31406286 0.90100002 8.2907333e-39
0.15788952 0.31406286 0.90100002 8.1063659e-39
0.15960571 0.31406286 0.90100002 7.9223151e-39
0.16078477 0.31301716 0.89800006 7.6478638e-39
0.16249524 0.31301716 0.89800006 7.4652606e-39
0.16475429 0.31406286 0.90100002 7.5556542e-39
0.16591619 0.31301716 0.89800006 7.7375161e-39
0.16762668 0.31301716 0.89800006 7.553471e-39
0.16990286 0.31406286 0.90100002 7.4616523e-39
0.17161906 0.31406286 0.90100002 7.7375343e-39
0.17372 0.31476 0.90300006 8.0137625e-39
0.17582858 0.31545714 0.90500003 7.9222913e-39
0.17755239 0.31545714 0.90500003 7.92265e-39
0.1792762 0.31545714 0.90500003 7.6471436e-39
0.18099999 0.31545714 0.90500003 7.46346e-39
0.18232 0.31476 0.90300006 8.0141016e-39
0.18404001 0.31476 0.90300006 8.5651244e-39
0.18534857 0.31406286 0.90100002 8.196716e-39
0.18644191 0.31301716 0.89800006 7.8293782e-39
0.18815239 0.31301716 0.89800006 7.6471464e-39
0.18986288 0.31301716 0.89800006 7.3734307e-39
0.19157334 0.31301716 0.89800006 7.8318879e-39
0.19328383 0.31301716 0.89800006 8.2907095e-39
0.1949943 0.31301716 0.89800006 7.9240878e-39
0.19736192 0.31406286 0.90100002 7.6496435e-39
0.19907811 0.31406286 0.90100002 7.2826462e-39
0.20124002 0.31476 0.90300006 7.0074985e-39
0.20296001 0.31476 0.90300006 7.5560003e-39
0.20468001 0.31476 0.90300006 8.1037749e-39
0.20640001 0.31476 0.90300006 7.4594831e-39
0.20812002 0.31476 0.90300006 6.9074079e-39
0.21030477 0.31545714 0.90500003 7.1854395e-39
0.21202858 0.31545714 0.90500003 7.4612907e-39
0.21375237 0.31545714 0.90500003 7.552036e-39
0.2154762 0.31545714 0.90500003 7.6467582e-39
0.21720001 0.31545714 0.90500003 7.3712685e-39
0.21892382 0.31545714 0.90500003 7.0961404e-39
0.22016001 0.31476 0.90300006 7.4635034e-39
0.22188 0.31476 0.90300006 7.83083e-39
0.22360002 0.31476 0.90300006 7.738263e-39
0.22532001 0.31476 0.90300006 7.649296e-39
0.22704001 0.31476 0.90300006 7.6475009e-39
0.22876 0.31476 0.90300006 7.6460688e-39
0.23048002 0.31476 0.90300006 7.6457142e-39
0.23220001 0.31476 0.90300006 7.6457395e-39
0.23443809 0.31545714 0.90500003 7.738319e-39
0.23564 0.31476 0.90300006 7.830858e-39
0.23736002 0.31476 0.90300006 7.7354212e-39
0.23908001 0.31476 0.90300006 7.7354184e-39
0.24080001 0.31476 0.90300006 7.7372092e-39
0.24198286 0.31406286 0.90100002 7.7389875e-39
0.24369904 0.31406286 0.90100002 8.1059553e-39
0.24541524 0.31406286 0.90100002 8.472947e-39
0.24713144 0.31406286 0.90100002 8.014138e-39
0.24801905 0.31301716 0.89800006 7.5556682e-39
0.24917334 0.31231999 0.89600003 7.7400468e-39
0.25088 0.31231999 0.89600003 8.0155701e-39
0.25315049 0.31301716 0.89800006 8.1978244e-39
0.25486097 0.31301716 0.89800006 8.3800535e-39
0.25657144 0.31301716 0.89800006 7.9205103e-39
0.25828192 0.31301716 0.89800006 7.4609474e-39
0.25999239 0.31301716 0.89800006 7.5538325e-39
0.26170287 0.31301716 0.89800006 7.7357266e-39
0.26341334 0.31301716 0.89800006 7.8300915e-39
0.26512381 0.31301716 0.89800006 7.9222871e-39
0.26683432 0.31301716 0.89800006 8.105242e-39
0.2694419 0.31406286 0.90100002 8.2881928e-39
0.2711581 0.31406286 0.90100002 8.1052364e-39
0.2728743 0.31406286 0.90100002 7.9208466e-39
0.27459049 0.31406286 0.90100002 7.7382518e-39
0.27692002 0.31476 0.90300006 7.5556794e-39
0.27864003 0.31476 0.90300006 7.6464625e-39
0.27973905 0.31406286 0.90100002 7.7372078e-39
0.28051808 0.31301716 0.89800006 7.9208648e-39
0.28222859 0.31301716 0.89800006 8.1045092e-39
0.28393906 0.31301716 0.89800006 8.0122897e-39
0.28660384 0.31406286 0.90100002 7.8282796e-39
0.28896001 0.31476 0.90300006 7.6464233e-39
0.29003617 0.31406286 0.90100002 7.4659753e-39
0.2924 0.31476 0.90300006 7.5560129e-39
0.29477143 0.31545714 0.90500003 7.6449898e-39
0.29649523 0.31545714 0.90500003 7.5495796e-39
0.29821905 0.31545714 0.90500003 7.5466817e-39
0.29994285 0.31545714 0.90500003 7.8289774e-39
0.30033332 0.31406286 0.90100002 8.1062888e-39
0.30204952 0.31406286 0.90100002 8.0148233e-39
0.30376571 0.31406286 0.90100002 7.9233367e-39
0.30446479 0.31301716 0.89800006 7.6478218e-39
0.30617523 0.31301716 0.89800006 7.4645235e-39
0.30788574 0.31301716 0.89800006 7.7375329e-39
0.30959621 0.31301716 0.89800006 8.0130492e-39
0.3123467 0.31406286 0.90100002 8.1978076e-39
0.31476 0.31476 0.90300006 8.4743903e-39
0.31577903 0.31406286 0.90100002 8.2907193e-39
0.31749523 0.31406286 0.90100002 8.1073916e-39
0.31992 0.31476 0.90300006 8.2928423e-39
0.32164001 0.31476 0.90300006 8.3843288e-39
0.32264382 0.31406286 0.90100002 8.6594864e-39
0.32436001 0.31406286 0.90100002 9.0268256e-39
0.32499048 0.31301716 0.89800006 8.6587633e-39
0.32670096 0.31301716 0.89800006 8.2885319e-39
0.32841146 0.31301716 0.89800006 7.9200955e-39
0.33012193 0.31301716 0.89800006 7.5520627e-39
0.33183238 0.31301716 0.89800006 7.8301083e-39
0.33354288 0.31301716 0.89800006 8.1988796e-39
0.33712 0.31476 0.90300006 8.1988754e-39
0.33884001 0.31476 0.90300006 8.1992271e-39
0.34056002 0.31476 0.90300006 8.5683572e-39
0.34228 0.31476 0.90300006 8.8446134e-39
0.34323812 0.31406286 0.90100002 8.4737177e-39
0.34495428 0.31406286 0.90100002 8.0137919e-39
0.34667048 0.31406286 0.90100002 7.6464205e-39
0.34645334 0.31231999 0.89600003 7.2794456e-39
0.34816003 0.31231999 0.89600003 7.6467974e-39
0.34986669 0.31231999 0.89600003 8.1066924e-39
0.3523581 0.31301716 0.89800006 7.9226641e-39
0.35406861 0.31301716 0.89800006 7.7390015e-39
0.35776001 0.31476 0.90300006 7.7390099e-39
0.35947999 0.31476 0.90300006 7.7418882e-39
0.36199999 0.31545714 0.90500003 7.9255676e-39
0.36372381 0.31545714 0.90500003 8.2024851e-39
0.36464 0.31476 0.90300006 8.2950157e-39
0.36636001 0.31476 0.90300006 8.479421e-39
0.36808002 0.31476 0.90300006 8.5684048e-39
0.36980003 0.31476 0.90300006 8.7520898e-39
0.37069714 0.31406286 0.90100002 8.7517451e-39
0.37241334 0.31406286 0.90100002 8.7517227e-39
0.37288383 0.31301716 0.89800006 8.5676719e-39
0.3745943 0.31301716 0.89800006 8.4775979e-39
0.37630478 0.31301716 0.89800006 8.5690424e-39
0.37801525 0.31301716 0.89800006 8.6623282e-39
0.37972575 0.31301716 0.89800006 8.8456573e-39
0.3814362 0.31301716 0.89800006 9.0293297e-39
0.38314667 0.31301716 0.89800006 9.0289724e-39
0.38614285 0.31406286 0.90100002 9.0304367e-39
0.38656765 0.31301716 0.89800006 8.9371957e-39
0.3882781 0.31301716 0.89800006 8.8449637e-39
0.3899886 0.31301716 0.89800006 8.8445671e-39
0.39388004 0.31476 0.90300006 8.8453266e-39
0.39560002 0.31476 0.90300006 9.1219527e-39
0.39512002 0.31301716 0.89800006 9.3073922e-39
0.3968305 0.31301716 0.89800006 9.3992024e-39
0.39765334 0.31231999 0.89600003 9.3995878e-39
0.40025145 0.31301716 0.89800006 9.8584346e-39
0.40196192 0.31301716 0.89800006 1.0320102e-38
0.4036724 0.31301716 0.89800006 9.85911e-39
0.4053829 0.31301716 0.89800006 9.3988647e-39
0.40709335 0.31301716 0.89800006 9.0308137e-39
0.40880382 0.31301716 0.89800006 8.7549331e-39
0.41051432 0.31301716 0.89800006 8.9396662e-39
0.4122248 0.31301716 0.89800006 9.2158916e-39
0.41393524 0.31301716 0.89800006 9.3080886e-39
0.41472003 0.31231999 0.89600003 9.4006654e-39
0.41642669 0.31231999 0.89600003 9.3063426e-39
0.41813335 0.31231999 0.89600003 9.2119708e-39
0.42077717 0.31301716 0.89800006 9.2137406e-39
0.42248765 0.31301716 0.89800006 9.1236847e-39
0.42561522 0.31406286 0.90100002 8.7545351e-39
0.42828003 0.31476 0.90300006 8.3871791e-39
0.42904761 0.31406286 0.90100002 8.8459838e-39
0.43172002 0.31476 0.90300006 9.2129965e-39
0.43440002 0.31545714 0.90500003 9.48961e-39
0.43516001 0.31476 0.90300006 9.6732824e-39
0.43591237 0.31406286 0.90100002 9.3963438e-39
0.43762857 0.31406286 0.90100002 9.0325975e-39
0.43934476 0.31406286 0.90100002 9.4907072e-39
0.44106096 0.31406286 0.90100002 9.8562598e-39
0.44277716 0.31406286 0.90100002 9.6722342e-39
0.44301337 0.31301716 0.89800006 9.3967277e-39
0.44373333 0.31231999 0.89600003 9.6722342e-39
0.44543999 0.31231999 0.89600003 9.9477141e-39
0.44714668 0.31231999 0.89600003 9.8587232e-39
0.44985527 0.31301716 0.89800006 9.769766e-39
0.45156574 0.31301716 0.89800006 9.396334e-39
0.45479047 0.31406286 0.90100002 9.0253767e-39
0.45650667 0.31406286 0.90100002 8.8438314e-39
0.45924002 0.31476 0.90300006 8.6605346e-39
0.46096003 0.31476 0.90300006 8.8463748e-39
0.46268001 0.31476 0.90300006 9.1226085e-39
0.46440002 0.31476 0.90300006 9.1215436e-39
0.46508762 0.31406286 0.90100002 9.1208345e-39
0.46680382 0.31406286 0.90100002 9.0286501e-39
